ply
format ascii 1.0
element vertex 1146
property float x
property float y
property float z
property uchar red
property uchar green
property uchar blue
property float depth
property float heading
end_header
-0.4378 -0.6415 1.3472 0 255 255 -1.0 -1
-1.5328 -4.4239 -5.0276 0 255 255 -1.0 -1
-0.1415 -2.6923 -10.8643 0 255 255 -1.0 -1
1.4744 -1.9517 -9.6760 0 255 255 -1.0 -1
2.4485 -1.2857 0.5105 0 255 255 -1.0 -1
-0.3315 -0.7675 0.4875 0 255 255 -1.0 -1
-0.6958 -3.1890 -6.5059 0 255 255 -1.0 -1
0.1134 -1.3848 -5.2432 0 255 255 -1.0 -1
-0.9921 -3.6719 -7.9621 0 255 255 -1.0 -1
-1.1414 -2.0170 -9.0797 0 255 255 -1.0 -1
0.7146 -2.2248 -10.2794 0 255 255 -1.0 -1
0.3850 -1.3937 -5.3905 0 255 255 -1.0 -1
1.0082 -2.5283 -10.0659 0 255 255 -1.0 -1
-0.6147 -1.3923 -3.0546 0 255 255 -1.0 -1
0.6668 -1.5346 -10.3337 0 255 255 -1.0 -1
0.0365 -1.3022 -4.5420 0 255 255 -1.0 -1
0.4883 -2.7490 -10.5533 0 255 255 -1.0 -1
-1.0501 -3.6661 -7.3426 0 255 255 -1.0 -1
-0.0761 -4.2018 -5.8141 0 255 255 -1.0 -1
-0.9276 -3.5591 -6.2650 0 255 255 -1.0 -1
-1.7800 -4.5030 -6.5833 0 255 255 -1.0 -1
-5.3404 -3.6083 -4.3069 0 255 255 -1.0 -1
1.0529 -2.1735 -10.0326 0 255 255 -1.0 -1
0.8034 -1.8913 -10.1367 0 255 255 -1.0 -1
-0.6979 -4.5141 -4.8300 0 255 255 -1.0 -1
-0.6668 -2.4634 -8.3723 0 255 255 -1.0 -1
0.1270 -1.3898 -9.4452 0 255 255 -1.0 -1
1.6861 -1.8041 -9.6119 0 255 255 -1.0 -1
0.1079 -2.6468 -10.7832 0 255 255 -1.0 -1
-0.9324 -4.1506 -6.6997 0 255 255 -1.0 -1
-1.3464 -2.1743 -8.4380 0 255 255 -1.0 -1
-1.3611 -1.5514 -7.2527 0 255 255 -1.0 -1
-0.0370 -1.9207 -10.6833 0 255 255 -1.0 -1
0.2317 -1.4258 -10.5647 0 255 255 -1.0 -1
-0.8337 -2.1506 -8.2619 0 255 255 -1.0 -1
1.0187 -3.2057 -9.7527 0 255 255 -1.0 -1
-0.6656 -0.4741 1.5885 0 255 255 -1.0 -1
-1.4894 -1.1711 -7.0930 0 255 255 -1.0 -1
-0.2214 -0.6251 0.2905 0 255 255 -1.0 -1
0.2200 -1.5222 -11.2435 0 255 255 -1.0 -1
0.9961 -1.4530 -10.0470 0 255 255 -1.0 -1
0.7454 -1.5788 -10.2258 0 255 255 -1.0 -1
-0.9554 -1.1443 -1.8629 0 255 255 -1.0 -1
-2.3528 -0.7431 -4.3659 0 255 255 -1.0 -1
-2.2467 -1.4533 -5.7809 0 255 255 -1.0 -1
-0.2991 -4.5782 -5.4520 0 255 255 -1.0 -1
0.7630 -1.3581 -10.3283 0 255 255 -1.0 -1
-1.4416 -1.4186 -6.2025 0 255 255 -1.0 -1
1.5490 -1.4923 -9.5593 0 255 255 -1.0 -1
0.3953 -3.5581 -5.1477 0 255 255 -1.0 -1
-3.6575 -3.6416 -3.1848 0 255 255 -1.0 -1
0.3216 -2.7721 -10.3451 0 255 255 -1.0 -1
0.7798 -1.4383 -4.3901 0 255 255 -1.0 -1
-3.1943 -3.6320 -2.5633 0 255 255 -1.0 -1
1.6312 -1.5239 -9.6583 0 255 255 -1.0 -1
0.3621 -2.1384 -10.5645 0 255 255 -1.0 -1
-2.0221 -1.6512 -8.1180 0 255 255 -1.0 -1
0.9536 -4.5286 -4.3079 0 255 255 -1.0 -1
-1.6211 -1.3633 -5.8455 0 255 255 -1.0 -1
-1.4829 -1.3581 -5.9467 0 255 255 -1.0 -1
-1.2993 -1.2762 -6.7140 0 255 255 -1.0 -1
-0.5075 -4.0182 -6.9080 0 255 255 -1.0 -1
-1.1581 -0.9473 -7.6317 0 255 255 -1.0 -1
-1.2179 -0.2403 -9.5406 0 255 255 -1.0 -1
-0.8254 -1.1539 -8.0175 0 255 255 -1.0 -1
-1.6314 -1.2421 -6.9652 0 255 255 -1.0 -1
-1.0546 -4.5173 -5.3119 0 255 255 -1.0 -1
0.3808 -2.4827 -10.4322 0 255 255 -1.0 -1
0.2945 -2.1492 -10.5902 0 255 255 -1.0 -1
0.2256 -4.3783 -5.4456 0 255 255 -1.0 -1
-1.6264 -1.3232 -6.6658 0 255 255 -1.0 -1
-4.2372 -4.2336 -4.2936 0 255 255 -1.0 -1
-0.4132 -1.3420 -5.5415 0 255 255 -1.0 -1
-1.4726 -1.1593 -7.1767 0 255 255 -1.0 -1
-0.7141 -0.5169 -1.6879 0 255 255 -1.0 -1
-0.7239 -0.6191 1.0653 0 255 255 -1.0 -1
-0.3609 -1.4417 -2.6151 0 255 255 -1.0 -1
-0.6053 -0.5467 1.6985 0 255 255 -1.0 -1
-0.6692 -0.6023 -8.4248 0 255 255 -1.0 -1
-0.1565 -1.9713 -10.8565 0 255 255 -1.0 -1
1.7087 -2.7696 -9.6019 0 255 255 -1.0 -1
-0.6519 -4.5287 -4.6479 0 255 255 -1.0 -1
0.0071 -1.5803 -10.7128 0 255 255 -1.0 -1
0.7419 -0.4532 1.0122 0 255 255 -1.0 -1
0.0319 -1.8378 -10.5192 0 255 255 -1.0 -1
-1.5022 -1.6354 -7.6476 0 255 255 -1.0 -1
-2.3823 -1.5555 -7.8622 0 255 255 -1.0 -1
-2.2435 -1.4504 -5.8293 0 255 255 -1.0 -1
0.3646 -2.1353 -10.6593 0 255 255 -1.0 -1
-0.7463 0.7638 -3.8544 0 255 255 -1.0 -1
-0.1338 -1.4139 -9.2203 0 255 255 -1.0 -1
0.4392 -4.3013 -5.3273 0 255 255 -1.0 -1
1.1137 -0.4044 -9.9955 0 255 255 -1.0 -1
-0.1664 -3.4748 -3.1121 0 255 255 -1.0 -1
-1.2289 -1.2989 1.2942 0 255 255 -1.0 -1
-0.5605 -2.1803 -8.5289 0 255 255 -1.0 -1
-1.3419 0.4388 -1.5725 0 255 255 -1.0 -1
-0.6261 -4.5913 -4.8822 0 255 255 -1.0 -1
-0.3052 -2.7416 -9.4423 0 255 255 -1.0 -1
1.0903 -3.3951 -4.3471 0 255 255 -1.0 -1
-1.3255 -1.3389 -4.6973 0 255 255 -1.0 -1
-0.2250 -1.3306 -3.8638 0 255 255 -1.0 -1
-2.6539 -4.4568 -5.8268 0 255 255 -1.0 -1
-1.3297 -1.1241 -7.1759 0 255 255 -1.0 -1
1.2052 -1.1700 -4.4202 0 255 255 -1.0 -1
-0.5563 -3.3898 -8.2311 0 255 255 -1.0 -1
-0.4788 -1.3899 -2.3551 0 255 255 -1.0 -1
1.0490 -2.4993 -10.0420 0 255 255 -1.0 -1
0.4479 -2.6245 -10.3431 0 255 255 -1.0 -1
-1.4895 0.0734 -3.5676 0 255 255 -1.0 -1
0.8965 -0.9582 -10.0816 0 255 255 -1.0 -1
0.4507 -1.8506 -10.4627 0 255 255 -1.0 -1
-0.1090 -2.7756 -6.1293 0 255 255 -1.0 -1
0.0726 -1.3724 -2.2893 0 255 255 -1.0 -1
0.5121 -2.0288 -10.5109 0 255 255 -1.0 -1
-0.1154 -1.2741 -3.2389 0 255 255 -1.0 -1
0.8956 -4.0984 -9.8308 0 255 255 -1.0 -1
-0.0059 -0.4520 1.2223 0 255 255 -1.0 -1
-3.0926 -1.4791 -5.7711 0 255 255 -1.0 -1
-0.7109 -2.3898 -8.3942 0 255 255 -1.0 -1
-1.2721 -1.3321 0.8578 0 255 255 -1.0 -1
-0.8438 -1.3066 -5.9405 0 255 255 -1.0 -1
-0.4044 -0.6391 1.4620 0 255 255 -1.0 -1
-0.7071 -1.5453 -8.2083 0 255 255 -1.0 -1
0.9251 -1.1933 -10.0789 0 255 255 -1.0 -1
-2.2005 -1.3511 -6.7738 0 255 255 -1.0 -1
-0.2836 -2.3957 -8.5595 0 255 255 -1.0 -1
1.3578 -2.1718 -9.7194 0 255 255 -1.0 -1
1.7300 -2.6449 -9.5623 0 255 255 -1.0 -1
-0.5937 -1.5705 -9.0602 0 255 255 -1.0 -1
0.8835 -2.0270 -10.1432 0 255 255 -1.0 -1
1.0283 -1.5061 -9.9909 0 255 255 -1.0 -1
1.0731 -1.5608 -10.0003 0 255 255 -1.0 -1
0.0189 -1.2310 -8.7953 0 255 255 -1.0 -1
0.4303 -2.2470 -10.3886 0 255 255 -1.0 -1
-1.6578 -4.5455 -5.7961 0 255 255 -1.0 -1
-0.9514 -3.6109 -7.8730 0 255 255 -1.0 -1
-3.0257 -1.3783 -6.1809 0 255 255 -1.0 -1
-0.1420 -1.4910 -3.7891 0 255 255 -1.0 -1
-1.8778 -1.3572 -5.8516 0 255 255 -1.0 -1
-0.7520 -1.9922 -8.2031 0 255 255 -1.0 -1
-0.7523 -1.1043 -8.0072 0 255 255 -1.0 -1
-2.0727 -1.5072 -5.7791 0 255 255 -1.0 -1
0.3275 -4.0158 -5.3987 0 255 255 -1.0 -1
-0.2604 -1.2651 -4.8896 0 255 255 -1.0 -1
-0.8540 -1.8750 -8.2651 0 255 255 -1.0 -1
1.6543 -2.8136 -9.5869 0 255 255 -1.0 -1
-0.1308 -1.3483 -4.6596 0 255 255 -1.0 -1
-1.3595 -1.3675 -6.0345 0 255 255 -1.0 -1
-2.2288 -1.2769 -5.6152 0 255 255 -1.0 -1
0.2925 -1.2657 -4.3885 0 255 255 -1.0 -1
-0.2781 -0.5562 0.7360 0 255 255 -1.0 -1
1.1433 -1.6528 -9.9895 0 255 255 -1.0 -1
-0.7231 -3.2227 -6.4991 0 255 255 -1.0 -1
-3.6996 -4.2447 -4.0403 0 255 255 -1.0 -1
-0.1201 -1.3284 -1.0182 0 255 255 -1.0 -1
-2.0694 -1.3625 -6.1060 0 255 255 -1.0 -1
-0.5406 -1.6137 -8.3474 0 255 255 -1.0 -1
0.6083 -3.0986 -10.2350 0 255 255 -1.0 -1
-0.8580 -1.3831 -5.5022 0 255 255 -1.0 -1
-0.2128 -0.5975 1.1417 0 255 255 -1.0 -1
1.1721 -2.0060 -9.9503 0 255 255 -1.0 -1
0.0201 -4.2788 -5.5948 0 255 255 -1.0 -1
1.6247 -2.5980 -9.5256 0 255 255 -1.0 -1
-1.0693 -0.7438 0.9582 0 255 255 -1.0 -1
0.2681 -1.6689 -10.5741 0 255 255 -1.0 -1
-0.2608 -2.5640 -8.9890 0 255 255 -1.0 -1
0.4992 -2.6045 -10.2562 0 255 255 -1.0 -1
-0.8833 -0.7635 1.1660 0 255 255 -1.0 -1
-0.1315 -1.4540 -10.8570 0 255 255 -1.0 -1
0.8009 -1.4872 -10.1899 0 255 255 -1.0 -1
-0.4915 -1.4247 -8.6583 0 255 255 -1.0 -1
0.6951 -1.8958 -10.2188 0 255 255 -1.0 -1
-0.2293 -1.3154 -2.9369 0 255 255 -1.0 -1
-2.4039 -1.4529 -7.7137 0 255 255 -1.0 -1
-2.0624 -4.5002 -5.9306 0 255 255 -1.0 -1
0.5685 -2.6709 -10.2806 0 255 255 -1.0 -1
-0.2624 -1.8143 -8.9708 0 255 255 -1.0 -1
0.7908 -2.1330 -10.1085 0 255 255 -1.0 -1
-0.7996 -3.4383 -6.3491 0 255 255 -1.0 -1
-1.1909 0.5226 -3.4138 0 255 255 -1.0 -1
-2.1577 -3.9980 -5.3149 0 255 255 -1.0 -1
0.9689 -2.7235 -10.3063 0 255 255 -1.0 -1
0.2934 -1.3196 -10.5257 0 255 255 -1.0 -1
0.3742 -2.2678 -10.4868 0 255 255 -1.0 -1
-1.0673 -1.0104 1.0464 0 255 255 -1.0 -1
-3.8573 -3.5958 -2.1971 0 255 255 -1.0 -1
-3.2222 -3.8033 -3.5799 0 255 255 -1.0 -1
0.7049 -1.9871 -10.3141 0 255 255 -1.0 -1
-3.9733 -0.7864 -6.3562 0 255 255 -1.0 -1
-0.7544 -0.5877 -0.3735 0 255 255 -1.0 -1
0.4377 -1.2279 -4.9154 0 255 255 -1.0 -1
-1.1013 -1.3550 -5.6129 0 255 255 -1.0 -1
-0.0326 -4.2405 -5.6384 0 255 255 -1.0 -1
-0.3681 -1.0981 0.4309 0 255 255 -1.0 -1
0.2354 -1.2313 -10.5427 0 255 255 -1.0 -1
0.5603 -1.6015 -10.3437 0 255 255 -1.0 -1
0.5936 -2.2445 -10.2737 0 255 255 -1.0 -1
0.9328 -1.6640 -9.9384 0 255 255 -1.0 -1
-1.5150 -1.3099 -7.1134 0 255 255 -1.0 -1
1.4165 -1.4751 -9.6447 0 255 255 -1.0 -1
0.9205 -1.7053 -10.0693 0 255 255 -1.0 -1
-0.5354 -1.1524 0.6268 0 255 255 -1.0 -1
-3.0900 -3.6635 -2.6488 0 255 255 -1.0 -1
1.2990 -4.4865 -4.8645 0 255 255 -1.0 -1
0.1664 -2.5080 -10.7238 0 255 255 -1.0 -1
0.5995 -1.6078 -10.3079 0 255 255 -1.0 -1
1.1198 -2.0292 -9.9686 0 255 255 -1.0 -1
-0.9715 -0.8116 -7.8854 0 255 255 -1.0 -1
0.1746 -2.9558 -5.5452 0 255 255 -1.0 -1
-1.2342 -2.8978 -6.3960 0 255 255 -1.0 -1
-1.5380 -1.5855 -7.5361 0 255 255 -1.0 -1
1.1917 -2.1879 -9.9233 0 255 255 -1.0 -1
-2.2874 -1.4328 -6.8312 0 255 255 -1.0 -1
0.8541 -1.3265 -1.2718 0 255 255 -1.0 -1
0.5856 -2.3352 -10.2251 0 255 255 -1.0 -1
-0.3773 -2.8893 -10.4596 0 255 255 -1.0 -1
-0.1990 -1.3744 -3.8233 0 255 255 -1.0 -1
-0.2193 -4.5453 -5.6511 0 255 255 -1.0 -1
-0.6167 -4.5237 -5.2512 0 255 255 -1.0 -1
-1.8618 -4.7383 -5.2276 0 255 255 -1.0 -1
-3.1529 -3.7227 -3.6963 0 255 255 -1.0 -1
0.4424 -1.5863 -10.4469 0 255 255 -1.0 -1
0.6534 -2.6364 -10.2521 0 255 255 -1.0 -1
0.0816 -0.9642 -10.7519 0 255 255 -1.0 -1
-0.1380 -0.3061 -3.1655 0 255 255 -1.0 -1
0.2034 -1.3402 -1.0390 0 255 255 -1.0 -1
0.0326 -0.6237 -0.0796 0 255 255 -1.0 -1
1.0569 -1.2816 -5.5587 0 255 255 -1.0 -1
1.5537 -2.9510 -9.5909 0 255 255 -1.0 -1
0.8254 0.5959 -5.2376 0 255 255 -1.0 -1
0.8070 -1.2438 -0.8552 0 255 255 -1.0 -1
0.9482 -1.6911 -9.9659 0 255 255 -1.0 -1
-4.0452 -4.5195 -4.3553 0 255 255 -1.0 -1
-3.2332 -4.3445 -4.1315 0 255 255 -1.0 -1
-0.1696 -2.4030 -10.8386 0 255 255 -1.0 -1
1.6074 -3.1632 -10.1781 0 255 255 -1.0 -1
1.5721 -1.4836 -9.5106 0 255 255 -1.0 -1
-1.3541 -2.9711 -6.1930 0 255 255 -1.0 -1
-2.9475 -3.6543 -3.5465 0 255 255 -1.0 -1
0.0691 -0.6339 -10.7239 0 255 255 -1.0 -1
-0.8462 -2.3623 -8.1772 0 255 255 -1.0 -1
1.0391 -1.0004 -1.3135 0 255 255 -1.0 -1
-0.2163 -2.9303 -8.9610 0 255 255 -1.0 -1
0.1463 -1.5703 -10.6739 0 255 255 -1.0 -1
-1.7238 -1.4563 -3.5690 0 255 255 -1.0 -1
1.7671 -1.9576 -9.5073 0 255 255 -1.0 -1
-1.5470 -1.0886 -2.2128 0 255 255 -1.0 -1
-0.8215 -1.1458 -6.2492 0 255 255 -1.0 -1
1.3592 -1.6899 -9.6723 0 255 255 -1.0 -1
-3.3268 -4.3809 -6.0361 0 255 255 -1.0 -1
-4.8773 -3.9893 -3.9661 0 255 255 -1.0 -1
0.4136 -3.1771 -5.3294 0 255 255 -1.0 -1
1.2940 -1.4093 -9.7084 0 255 255 -1.0 -1
1.1406 -1.7029 -9.9818 0 255 255 -1.0 -1
-3.1897 -1.2910 -6.9039 0 255 255 -1.0 -1
-2.8760 -3.6768 -3.4553 0 255 255 -1.0 -1
0.3814 -3.9374 -5.3982 0 255 255 -1.0 -1
-3.2477 -4.6146 -4.2796 0 255 255 -1.0 -1
-0.3511 -0.6074 0.8251 0 255 255 -1.0 -1
-0.5610 -0.5804 1.7639 0 255 255 -1.0 -1
-1.4635 -2.1028 -8.2659 0 255 255 -1.0 -1
1.2455 -2.1169 -9.6188 0 255 255 -1.0 -1
-1.5097 -1.2935 -6.9446 0 255 255 -1.0 -1
-1.5799 -4.1781 -7.0802 0 255 255 -1.0 -1
-0.4535 0.0276 -1.8811 0 255 255 -1.0 -1
-2.6434 -3.1092 -3.6868 0 255 255 -1.0 -1
1.1541 -2.4651 -9.8257 0 255 255 -1.0 -1
0.0026 -0.6246 -10.8754 0 255 255 -1.0 -1
-1.2754 -1.4592 -7.4300 0 255 255 -1.0 -1
1.0333 -2.4240 -10.0457 0 255 255 -1.0 -1
0.0492 -3.9549 -5.6580 0 255 255 -1.0 -1
-0.1683 -1.3519 -1.3827 0 255 255 -1.0 -1
-0.3728 -0.6170 1.1834 0 255 255 -1.0 -1
-0.1760 -3.5497 -3.0896 0 255 255 -1.0 -1
0.1551 -1.2745 -0.5687 0 255 255 -1.0 -1
-2.0025 -1.4605 -5.6200 0 255 255 -1.0 -1
-0.5293 -1.4022 -3.7285 0 255 255 -1.0 -1
-0.9244 -3.5542 -7.6107 0 255 255 -1.0 -1
-1.1579 -1.0655 -1.7016 0 255 255 -1.0 -1
-3.5706 -3.6538 -2.8299 0 255 255 -1.0 -1
0.9906 -1.8074 -10.0189 0 255 255 -1.0 -1
-0.7799 -1.0511 -7.3053 0 255 255 -1.0 -1
-0.4525 -0.6345 0.6289 0 255 255 -1.0 -1
-3.2672 -4.3419 -4.2257 0 255 255 -1.0 -1
1.3131 -4.3503 -4.9281 0 255 255 -1.0 -1
-1.0049 -4.0963 -6.3884 0 255 255 -1.0 -1
0.6115 -1.2166 -4.1372 0 255 255 -1.0 -1
-0.5560 -0.6396 0.7748 0 255 255 -1.0 -1
1.5132 -0.9026 -1.0122 0 255 255 -1.0 -1
0.9066 -2.8666 -10.1793 0 255 255 -1.0 -1
-0.4323 -1.5298 -10.4740 0 255 255 -1.0 -1
-2.0611 -4.6570 -5.1790 0 255 255 -1.0 -1
-4.0125 -4.4510 -4.2964 0 255 255 -1.0 -1
0.5914 -1.8384 -10.3168 0 255 255 -1.0 -1
-2.1508 -4.6975 -4.9848 0 255 255 -1.0 -1
0.5540 -2.5252 -10.2137 0 255 255 -1.0 -1
-1.3091 0.1416 -3.3880 0 255 255 -1.0 -1
-0.4847 -2.2938 -8.2850 0 255 255 -1.0 -1
-1.5909 -4.5375 -5.9347 0 255 255 -1.0 -1
-0.1022 -1.8259 -10.8873 0 255 255 -1.0 -1
0.1173 -2.4313 -10.5911 0 255 255 -1.0 -1
-0.2821 -1.3730 -2.6330 0 255 255 -1.0 -1
0.0364 -0.5803 0.2621 0 255 255 -1.0 -1
0.9204 -2.3375 -10.0969 0 255 255 -1.0 -1
-1.8333 -4.5156 -6.0287 0 255 255 -1.0 -1
-0.8593 -0.2815 1.6240 0 255 255 -1.0 -1
1.0486 -1.1054 -10.1662 0 255 255 -1.0 -1
-1.8313 -1.3635 -6.9902 0 255 255 -1.0 -1
-1.0294 -1.2404 -6.5926 0 255 255 -1.0 -1
-0.8617 -0.2802 1.6130 0 255 255 -1.0 -1
-3.3788 -4.5139 -4.3238 0 255 255 -1.0 -1
-0.6303 -0.4269 -3.6687 0 255 255 -1.0 -1
-1.0445 -3.0741 -7.1560 0 255 255 -1.0 -1
1.1168 -1.2496 -4.3915 0 255 255 -1.0 -1
-0.0676 -0.9754 0.0385 0 255 255 -1.0 -1
0.2017 -2.5455 -10.6512 0 255 255 -1.0 -1
0.1387 -4.1120 -5.5256 0 255 255 -1.0 -1
-0.9953 -1.2724 -3.1780 0 255 255 -1.0 -1
-0.3120 -2.9156 -10.6684 0 255 255 -1.0 -1
0.2608 -3.3093 -5.4680 0 255 255 -1.0 -1
-0.3698 -1.3914 -3.4759 0 255 255 -1.0 -1
-0.3779 -2.5543 -8.8485 0 255 255 -1.0 -1
-1.7353 -4.5828 -6.0001 0 255 255 -1.0 -1
-1.3101 -1.6363 -7.3925 0 255 255 -1.0 -1
-1.6504 -1.4478 -7.4323 0 255 255 -1.0 -1
1.0173 -2.4624 -10.1062 0 255 255 -1.0 -1
0.8409 -1.3661 -10.2618 0 255 255 -1.0 -1
-1.0839 -3.9078 -7.5950 0 255 255 -1.0 -1
1.5234 -2.0240 -9.6100 0 255 255 -1.0 -1
-0.0859 -0.0766 -9.0404 0 255 255 -1.0 -1
-2.4499 -1.4579 -7.6943 0 255 255 -1.0 -1
-3.0153 -4.3733 -4.1646 0 255 255 -1.0 -1
-1.7394 -1.3810 -6.9944 0 255 255 -1.0 -1
-2.0414 -1.3931 -5.6017 0 255 255 -1.0 -1
-1.9845 -4.5882 -5.3168 0 255 255 -1.0 -1
-1.3833 -1.6928 -7.1746 0 255 255 -1.0 -1
-3.7726 -3.6026 -2.2983 0 255 255 -1.0 -1
-1.4868 -1.2184 -7.1394 0 255 255 -1.0 -1
-0.1649 -1.4839 -8.7470 0 255 255 -1.0 -1
1.5533 -1.3180 -9.4896 0 255 255 -1.0 -1
-1.7801 -2.8006 -6.8439 0 255 255 -1.0 -1
-0.0960 -0.6151 0.6512 0 255 255 -1.0 -1
-2.3092 -4.3959 -6.3079 0 255 255 -1.0 -1
-0.4447 -1.7848 -2.0752 0 255 255 -1.0 -1
-2.5609 -1.3862 -7.2890 0 255 255 -1.0 -1
-0.3292 -0.5938 1.3991 0 255 255 -1.0 -1
-1.3644 -0.9071 -7.3838 0 255 255 -1.0 -1
-3.3137 -1.4882 -7.0492 0 255 255 -1.0 -1
-1.4795 -1.9088 -8.1965 0 255 255 -1.0 -1
-0.0930 -1.1619 -0.2478 0 255 255 -1.0 -1
1.6298 -1.6342 -9.5174 0 255 255 -1.0 -1
-0.7306 -0.8545 -8.4843 0 255 255 -1.0 -1
-0.3795 -2.6811 -8.8377 0 255 255 -1.0 -1
2.1709 -0.7671 -0.6307 0 255 255 -1.0 -1
-0.3218 -0.6288 0.9182 0 255 255 -1.0 -1
-0.2369 -0.5757 1.2557 0 255 255 -1.0 -1
-3.1140 -4.0600 -3.6525 0 255 255 -1.0 -1
1.2896 -2.3812 -9.8582 0 255 255 -1.0 -1
-1.3637 -1.5795 -7.6759 0 255 255 -1.0 -1
-0.2247 -3.0613 -10.1771 0 255 255 -1.0 -1
0.7193 -3.6616 -10.1867 0 255 255 -1.0 -1
0.9138 -1.7498 -10.0712 0 255 255 -1.0 -1
-1.2062 -1.4920 -7.4936 0 255 255 -1.0 -1
0.4090 -1.4156 -10.5223 0 255 255 -1.0 -1
1.1470 -1.7119 -9.9854 0 255 255 -1.0 -1
-2.4586 -1.4342 -6.6484 0 255 255 -1.0 -1
-1.8523 -4.3178 -6.6633 0 255 255 -1.0 -1
0.2065 -2.3743 -10.7367 0 255 255 -1.0 -1
1.8917 -2.7494 -9.6202 0 255 255 -1.0 -1
-0.6989 -4.4083 -4.0063 0 255 255 -1.0 -1
0.2545 -3.6695 -5.4229 0 255 255 -1.0 -1
0.2725 -1.7816 -10.6132 0 255 255 -1.0 -1
-1.4268 -1.5071 -7.5093 0 255 255 -1.0 -1
-0.6718 -1.0082 -6.4410 0 255 255 -1.0 -1
-0.3950 -1.3488 -3.0091 0 255 255 -1.0 -1
-0.2763 -2.7149 -8.9765 0 255 255 -1.0 -1
-0.8635 -0.3136 1.6229 0 255 255 -1.0 -1
-0.5428 -1.9455 -8.6583 0 255 255 -1.0 -1
1.6939 -2.2382 -9.5413 0 255 255 -1.0 -1
-1.8340 -4.4514 -6.6504 0 255 255 -1.0 -1
-0.6431 -1.3563 -4.7898 0 255 255 -1.0 -1
1.7261 -2.0827 -9.4919 0 255 255 -1.0 -1
1.1802 -2.1133 -9.9265 0 255 255 -1.0 -1
-0.5107 -0.6450 0.6638 0 255 255 -1.0 -1
-0.1777 -3.5439 -3.1064 0 255 255 -1.0 -1
-3.9938 -4.5209 -4.1235 0 255 255 -1.0 -1
-2.1075 -4.5369 -8.1889 0 255 255 -1.0 -1
1.5656 -1.8442 -9.4806 0 255 255 -1.0 -1
1.0921 -2.1374 -9.9987 0 255 255 -1.0 -1
1.2620 -2.6397 -10.0893 0 255 255 -1.0 -1
1.3702 -2.9505 -9.7378 0 255 255 -1.0 -1
0.7359 -2.1883 -10.1895 0 255 255 -1.0 -1
-1.1383 -1.5290 -7.4359 0 255 255 -1.0 -1
0.7280 -2.1985 -10.2268 0 255 255 -1.0 -1
0.3615 -1.9107 -10.5361 0 255 255 -1.0 -1
-0.8675 -1.2291 -2.6544 0 255 255 -1.0 -1
-0.3102 -1.2115 -8.6781 0 255 255 -1.0 -1
-0.1765 -1.4254 -3.0417 0 255 255 -1.0 -1
1.1101 -1.3257 -9.8292 0 255 255 -1.0 -1
-1.3338 -1.0480 -7.3862 0 255 255 -1.0 -1
-0.3865 -0.6142 1.4091 0 255 255 -1.0 -1
1.2289 -1.2487 -5.0111 0 255 255 -1.0 -1
-4.2797 -4.2668 -4.3123 0 255 255 -1.0 -1
-0.8620 -0.6808 -7.9962 0 255 255 -1.0 -1
1.3376 -1.6036 -9.6916 0 255 255 -1.0 -1
-0.7704 -2.1906 -8.1258 0 255 255 -1.0 -1
-0.1364 -1.4154 -2.5525 0 255 255 -1.0 -1
1.3985 -1.6281 -9.7584 0 255 255 -1.0 -1
1.1926 -1.3334 -1.4081 0 255 255 -1.0 -1
-4.0260 -1.4299 -6.4237 0 255 255 -1.0 -1
-0.1995 -1.3934 -3.0926 0 255 255 -1.0 -1
0.2387 -1.5633 -10.6434 0 255 255 -1.0 -1
-2.3193 -3.1959 -4.0134 0 255 255 -1.0 -1
0.4801 -2.0926 -10.3883 0 255 255 -1.0 -1
-0.7520 -4.5389 -4.8513 0 255 255 -1.0 -1
-1.7654 -4.3966 -6.8135 0 255 255 -1.0 -1
0.8421 -1.6752 -10.3482 0 255 255 -1.0 -1
-2.9983 -1.4741 -6.2198 0 255 255 -1.0 -1
1.1716 -1.6261 -9.7719 0 255 255 -1.0 -1
-0.2743 -0.9550 -8.7205 0 255 255 -1.0 -1
1.1900 -1.0700 -1.0333 0 255 255 -1.0 -1
-1.0217 -0.6752 1.1500 0 255 255 -1.0 -1
0.3364 -0.3424 -9.8517 0 255 255 -1.0 -1
0.1305 -1.3154 -10.5574 0 255 255 -1.0 -1
-0.5894 -0.6253 0.8061 0 255 255 -1.0 -1
-0.3342 -0.2762 -8.6966 0 255 255 -1.0 -1
1.4553 -2.1732 -9.6409 0 255 255 -1.0 -1
-0.6513 -2.4215 -8.4910 0 255 255 -1.0 -1
-4.5533 -4.0968 -3.9665 0 255 255 -1.0 -1
1.2268 -2.7798 -9.7647 0 255 255 -1.0 -1
-0.0575 -1.6549 -10.8330 0 255 255 -1.0 -1
1.0829 -1.2616 -9.6492 0 255 255 -1.0 -1
-0.8801 -2.0027 -7.6705 0 255 255 -1.0 -1
-1.7909 -1.5356 -7.2188 0 255 255 -1.0 -1
-0.8669 -0.6084 1.4358 0 255 255 -1.0 -1
1.0922 -4.5135 -4.0011 0 255 255 -1.0 -1
-0.1585 -0.5884 0.1759 0 255 255 -1.0 -1
-0.9403 -0.6604 -7.8176 0 255 255 -1.0 -1
-1.4586 0.1680 -1.2942 0 255 255 -1.0 -1
-0.2004 -1.4408 -4.9094 0 255 255 -1.0 -1
-0.4259 -0.6114 0.9151 0 255 255 -1.0 -1
-0.3509 -0.6229 0.9797 0 255 255 -1.0 -1
0.5567 -2.3047 -10.4257 0 255 255 -1.0 -1
-2.2158 -3.1980 -3.9400 0 255 255 -1.0 -1
-0.1910 -2.8450 -9.0980 0 255 255 -1.0 -1
0.4877 -1.7893 -10.4332 0 255 255 -1.0 -1
1.5448 -2.6875 -9.6234 0 255 255 -1.0 -1
0.2271 -3.2391 -5.6912 0 255 255 -1.0 -1
1.0193 -1.5917 -10.0752 0 255 255 -1.0 -1
-4.1693 -4.2562 -4.6298 0 255 255 -1.0 -1
0.2775 -2.0072 -10.5608 0 255 255 -1.0 -1
-1.1907 -3.9001 -6.2170 0 255 255 -1.0 -1
-0.5013 -2.9726 -4.1506 0 255 255 -1.0 -1
1.5579 -1.8559 -9.6900 0 255 255 -1.0 -1
0.6682 -2.1489 -10.3235 0 255 255 -1.0 -1
-3.1302 -1.3517 -6.1836 0 255 255 -1.0 -1
-1.6838 -4.4291 -6.5363 0 255 255 -1.0 -1
0.5925 0.4939 -4.2100 0 255 255 -1.0 -1
-2.5141 -3.7816 -2.4697 0 255 255 -1.0 -1
-0.3378 -3.7157 -5.9560 0 255 255 -1.0 -1
-1.4594 -4.1217 -6.6234 0 255 255 -1.0 -1
-0.7691 -4.5304 -5.2205 0 255 255 -1.0 -1
0.1924 -2.2983 -10.5657 0 255 255 -1.0 -1
0.3525 -1.3588 -4.7082 0 255 255 -1.0 -1
0.4786 -4.1944 -5.2884 0 255 255 -1.0 -1
1.4742 -2.6282 -9.6935 0 255 255 -1.0 -1
0.5146 -1.1849 -10.3102 0 255 255 -1.0 -1
-2.4981 -1.3531 -6.9144 0 255 255 -1.0 -1
0.4390 -1.3567 -5.2802 0 255 255 -1.0 -1
1.0213 -1.5680 -10.1029 0 255 255 -1.0 -1
1.2974 -3.2865 -9.5055 0 255 255 -1.0 -1
0.8388 -2.0163 -10.2120 0 255 255 -1.0 -1
-0.2012 -0.6178 1.8026 0 255 255 -1.0 -1
-0.5450 -0.6287 0.7497 0 255 255 -1.0 -1
-1.3431 -2.6362 -6.6550 0 255 255 -1.0 -1
-3.1613 -1.3780 -6.0415 0 255 255 -1.0 -1
-1.3490 -1.2508 -6.9115 0 255 255 -1.0 -1
1.3409 -0.8983 -9.7395 0 255 255 -1.0 -1
-2.8424 -3.1997 -3.6708 0 255 255 -1.0 -1
-0.8718 -4.4941 -4.6845 0 255 255 -1.0 -1
-1.0133 -1.3849 -2.3291 0 255 255 -1.0 -1
0.0228 -0.6152 -10.7248 0 255 255 -1.0 -1
-1.2388 -0.2622 1.5605 0 255 255 -1.0 -1
-0.2114 -4.6017 -5.3398 0 255 255 -1.0 -1
-0.7415 -1.3002 -8.2241 0 255 255 -1.0 -1
1.1746 -1.5812 -9.8219 0 255 255 -1.0 -1
0.5507 -1.7410 -10.3757 0 255 255 -1.0 -1
-1.3230 -3.2340 -5.9907 0 255 255 -1.0 -1
-1.4900 -1.2230 -7.2262 0 255 255 -1.0 -1
0.0572 -4.6569 -5.2181 0 255 255 -1.0 -1
0.3230 -4.5225 -4.7042 0 255 255 -1.0 -1
-0.5746 -3.8491 -6.7202 0 255 255 -1.0 -1
0.0571 -4.1908 -5.5479 0 255 255 -1.0 -1
-0.0224 -4.1309 -3.2826 0 255 255 -1.0 -1
-1.6354 -4.7072 -2.7223 0 255 255 -1.0 -1
0.6684 -1.9004 -10.2208 0 255 255 -1.0 -1
-2.6881 -1.3890 -6.6433 0 255 255 -1.0 -1
-2.0453 1.2129 -6.0919 0 255 255 -1.0 -1
-0.6331 -0.6137 1.4763 0 255 255 -1.0 -1
-1.7594 -1.4722 -7.3345 0 255 255 -1.0 -1
-0.5489 -1.6268 -5.4836 0 255 255 -1.0 -1
0.4783 -1.9501 -10.3712 0 255 255 -1.0 -1
-0.9867 -1.3217 -7.7078 0 255 255 -1.0 -1
-0.6605 -1.5002 -4.2353 0 255 255 -1.0 -1
0.0235 -1.6045 -10.7046 0 255 255 -1.0 -1
-2.2135 -1.3762 -6.7830 0 255 255 -1.0 -1
0.8689 -1.2797 -9.9411 0 255 255 -1.0 -1
0.4165 0.6975 -3.5649 0 255 255 -1.0 -1
0.3203 -3.0342 -5.3387 0 255 255 -1.0 -1
-0.1456 -1.9115 -10.9108 0 255 255 -1.0 -1
0.9009 -1.9840 -10.1495 0 255 255 -1.0 -1
-0.7565 -2.2877 -8.3553 0 255 255 -1.0 -1
0.8946 -1.2032 -10.1036 0 255 255 -1.0 -1
1.0094 -2.0920 -10.1076 0 255 255 -1.0 -1
-0.9745 -2.1086 -8.0626 0 255 255 -1.0 -1
1.6480 -2.5572 -9.5637 0 255 255 -1.0 -1
0.2238 -2.3819 -10.5426 0 255 255 -1.0 -1
1.4454 -2.6211 -9.7353 0 255 255 -1.0 -1
1.4358 -2.7414 -9.7027 0 255 255 -1.0 -1
-2.8816 -1.3366 -6.1866 0 255 255 -1.0 -1
-0.9242 -1.7687 -8.1484 0 255 255 -1.0 -1
0.9717 -4.4377 -4.3167 0 255 255 -1.0 -1
-1.3167 0.1960 -3.7022 0 255 255 -1.0 -1
1.1657 -2.7160 -9.9152 0 255 255 -1.0 -1
0.2389 -0.7798 0.2225 0 255 255 -1.0 -1
0.9282 -1.7018 -10.1710 0 255 255 -1.0 -1
-0.4934 -0.6080 0.7824 0 255 255 -1.0 -1
-3.9548 -4.4591 -4.4936 0 255 255 -1.0 -1
-0.1394 -2.6513 -10.9839 0 255 255 -1.0 -1
-0.8419 -4.0849 -6.5786 0 255 255 -1.0 -1
-1.6585 -1.2752 -6.8975 0 255 255 -1.0 -1
1.1924 -2.0780 -9.9628 0 255 255 -1.0 -1
0.0491 -3.4997 -5.4636 0 255 255 -1.0 -1
-1.2657 -3.6134 -5.3789 0 255 255 -1.0 -1
-0.9801 -2.0790 -8.0570 0 255 255 -1.0 -1
0.7036 -1.5353 -5.0349 0 255 255 -1.0 -1
1.0703 -2.0320 -10.0350 0 255 255 -1.0 -1
0.2644 -3.6458 -5.1509 0 255 255 -1.0 -1
-0.7694 -0.4918 -3.9890 0 255 255 -1.0 -1
-2.5981 -1.4317 -7.6823 0 255 255 -1.0 -1
-2.2090 -4.5332 -1.8772 0 255 255 -1.0 -1
1.2329 -1.9953 -9.9544 0 255 255 -1.0 -1
0.5744 -2.3539 -10.1972 0 255 255 -1.0 -1
-0.8042 -3.5230 -6.0909 0 255 255 -1.0 -1
-2.7061 -3.6357 -4.2986 0 255 255 -1.0 -1
0.9263 -1.7029 -10.1009 0 255 255 -1.0 -1
-2.1293 -1.5276 -7.4282 0 255 255 -1.0 -1
-0.1270 -0.6445 0.1614 0 255 255 -1.0 -1
0.6719 -2.3012 -10.2038 0 255 255 -1.0 -1
0.8206 -0.8811 -10.1293 0 255 255 -1.0 -1
-0.0653 -0.4566 1.0572 0 255 255 -1.0 -1
0.4463 -1.6797 -10.3459 0 255 255 -1.0 -1
-1.9903 -1.7271 -7.8962 0 255 255 -1.0 -1
-0.5298 -0.6153 0.8595 0 255 255 -1.0 -1
-0.2329 -0.4986 1.4170 0 255 255 -1.0 -1
-0.1757 -3.5816 -3.0722 0 255 255 -1.0 -1
0.8319 -2.1098 -10.2054 0 255 255 -1.0 -1
-1.0522 -1.8840 -7.5235 0 255 255 -1.0 -1
0.1455 -2.0275 -10.7000 0 255 255 -1.0 -1
0.2851 -2.3667 -10.5406 0 255 255 -1.0 -1
1.3711 -2.5537 -9.6637 0 255 255 -1.0 -1
0.0438 -4.5640 -5.3090 0 255 255 -1.0 -1
-0.6162 -0.6259 0.9836 0 255 255 -1.0 -1
0.4811 -2.7421 -10.3827 0 255 255 -1.0 -1
-0.0848 -2.7952 -10.8370 0 255 255 -1.0 -1
-3.1634 -4.4200 -4.2494 0 255 255 -1.0 -1
1.1195 -1.4114 -9.8307 0 255 255 -1.0 -1
-0.6222 -0.2525 1.9863 0 255 255 -1.0 -1
-3.0193 -3.7825 -3.4408 0 255 255 -1.0 -1
-0.1646 -0.7116 -8.7174 0 255 255 -1.0 -1
0.0397 -0.7762 -0.1044 0 255 255 -1.0 -1
-0.2370 -1.4069 -3.1316 0 255 255 -1.0 -1
1.1934 -1.9772 -9.9866 0 255 255 -1.0 -1
-1.3235 -1.3751 -6.4622 0 255 255 -1.0 -1
-3.0021 -3.6972 -3.4535 0 255 255 -1.0 -1
-0.8066 -1.1978 -6.5219 0 255 255 -1.0 -1
0.6007 -1.9897 -10.3027 0 255 255 -1.0 -1
0.0624 -2.5721 -10.5985 0 255 255 -1.0 -1
-2.6300 -1.4624 -6.7800 0 255 255 -1.0 -1
0.2703 -2.0616 -10.5563 0 255 255 -1.0 -1
0.1017 -1.6655 -10.6060 0 255 255 -1.0 -1
0.7583 -1.3255 -10.2249 0 255 255 -1.0 -1
-1.0072 -0.1493 1.8883 0 255 255 -1.0 -1
-1.0768 -4.7342 -4.0616 0 255 255 -1.0 -1
-0.9245 -1.1311 -6.8525 0 255 255 -1.0 -1
0.0297 -2.5834 -10.7137 0 255 255 -1.0 -1
-2.4773 -1.3333 -6.3326 0 255 255 -1.0 -1
0.6455 -1.4394 -5.3587 0 255 255 -1.0 -1
-1.3289 -2.1959 -7.2362 0 255 255 -1.0 -1
-2.2863 -4.8289 -5.2952 0 255 255 -1.0 -1
-1.0296 -0.0625 -2.1678 0 255 255 -1.0 -1
-0.4415 -0.6181 1.2364 0 255 255 -1.0 -1
-0.8858 0.7922 -4.0819 0 255 255 -1.0 -1
0.6122 -2.1872 -10.2727 0 255 255 -1.0 -1
0.8161 -2.3721 -10.0780 0 255 255 -1.0 -1
0.4633 -1.7934 -10.4432 0 255 255 -1.0 -1
-0.7150 -1.3778 -8.3348 0 255 255 -1.0 -1
-1.0174 -2.0685 -9.2404 0 255 255 -1.0 -1
-2.5848 -1.3655 -6.5907 0 255 255 -1.0 -1
-0.3623 -1.4011 -3.6489 0 255 255 -1.0 -1
-0.6713 -1.3289 -3.5816 0 255 255 -1.0 -1
0.3803 -1.9377 -10.5161 0 255 255 -1.0 -1
0.1302 -4.0789 -5.3700 0 255 255 -1.0 -1
0.4568 -1.8198 -10.4397 0 255 255 -1.0 -1
0.5044 -2.8335 -9.6832 0 255 255 -1.0 -1
-1.6939 -1.2598 -6.8851 0 255 255 -1.0 -1
-0.6937 -0.6259 1.0775 0 255 255 -1.0 -1
-0.7374 -3.4065 -8.2947 0 255 255 -1.0 -1
-0.8243 -2.1626 -8.1739 0 255 255 -1.0 -1
1.0889 -0.3749 -9.7537 0 255 255 -1.0 -1
-0.0524 -4.5797 -4.5360 0 255 255 -1.0 -1
-3.5873 -1.5743 -6.3664 0 255 255 -1.0 -1
-0.5707 -1.3623 -4.9878 0 255 255 -1.0 -1
-0.7692 -1.3395 -6.2823 0 255 255 -1.0 -1
-0.0939 -1.3859 -8.8715 0 255 255 -1.0 -1
1.1568 -1.4696 -9.8670 0 255 255 -1.0 -1
-0.4373 -2.6467 -8.7659 0 255 255 -1.0 -1
-3.5099 -3.6688 -3.1387 0 255 255 -1.0 -1
-1.6683 -1.6944 -8.3091 0 255 255 -1.0 -1
-1.9176 -1.3912 -5.7446 0 255 255 -1.0 -1
-3.5430 -4.4924 -4.0594 0 255 255 -1.0 -1
0.6683 -1.3586 -0.8312 0 255 255 -1.0 -1
1.2424 -2.3114 -9.9396 0 255 255 -1.0 -1
1.7254 -1.1955 -9.5344 0 255 255 -1.0 -1
0.1263 -0.3919 -10.7168 0 255 255 -1.0 -1
-0.5852 -1.7486 -8.3354 0 255 255 -1.0 -1
0.0401 -3.7614 -5.7676 0 255 255 -1.0 -1
1.0510 -1.3464 -9.8263 0 255 255 -1.0 -1
-0.7293 -1.4062 -5.1502 0 255 255 -1.0 -1
1.0510 -1.6478 -10.0383 0 255 255 -1.0 -1
-0.3350 -0.6200 1.5076 0 255 255 -1.0 -1
-0.4818 -4.5565 -4.8291 0 255 255 -1.0 -1
-0.6805 -2.5038 -8.5086 0 255 255 -1.0 -1
0.3960 -2.4940 -10.2988 0 255 255 -1.0 -1
-1.6445 -3.1710 -6.7875 0 255 255 -1.0 -1
-0.4088 -4.5800 -4.7741 0 255 255 -1.0 -1
0.5147 -0.5042 -5.3331 0 255 255 -1.0 -1
0.7901 -2.1124 -10.1973 0 255 255 -1.0 -1
1.0590 -1.6327 -10.0513 0 255 255 -1.0 -1
0.3155 -3.0136 -5.4067 0 255 255 -1.0 -1
-2.5395 -1.4874 -7.0937 0 255 255 -1.0 -1
-0.9725 -1.1384 -6.9407 0 255 255 -1.0 -1
0.3755 -1.4221 -1.0899 0 255 255 -1.0 -1
0.0170 -3.8901 -5.7589 0 255 255 -1.0 -1
-2.3667 -4.5324 -5.6144 0 255 255 -1.0 -1
-1.9446 -1.5267 -7.2355 0 255 255 -1.0 -1
-1.4127 -2.1738 -7.9255 0 255 255 -1.0 -1
-0.9899 -4.3213 -5.9051 0 255 255 -1.0 -1
-0.4045 -1.4297 -5.7956 0 255 255 -1.0 -1
-1.0380 -0.6601 1.1981 0 255 255 -1.0 -1
-0.8663 -1.1424 -6.2606 0 255 255 -1.0 -1
0.3434 -1.9360 -10.5042 0 255 255 -1.0 -1
1.0975 -2.0963 -10.0198 0 255 255 -1.0 -1
-1.8306 -4.3884 -6.7022 0 255 255 -1.0 -1
0.0339 -1.3622 -10.5782 0 255 255 -1.0 -1
-1.4948 -0.7173 -1.7153 0 255 255 -1.0 -1
-0.2468 -0.6111 1.1401 0 255 255 -1.0 -1
1.4417 -2.2078 -9.6832 0 255 255 -1.0 -1
1.1369 -2.4449 -9.9898 0 255 255 -1.0 -1
-0.7157 -1.4678 -2.9384 0 255 255 -1.0 -1
-0.0134 -4.4667 -3.2613 0 255 255 -1.0 -1
0.3782 -1.3924 -10.3963 0 255 255 -1.0 -1
0.8308 -2.1546 -10.1890 0 255 255 -1.0 -1
-2.3622 -4.4651 -7.7347 0 255 255 -1.0 -1
-0.3820 -1.2897 -0.8491 0 255 255 -1.0 -1
0.0868 -1.2423 -0.8388 0 255 255 -1.0 -1
-0.4831 -1.8182 -8.8927 0 255 255 -1.0 -1
-1.6935 -1.3115 -6.0678 0 255 255 -1.0 -1
0.8609 -1.4039 -1.3042 0 255 255 -1.0 -1
-1.4700 -3.4991 -6.5240 0 255 255 -1.0 -1
3.4716 0.7949 1.8709 0 255 255 -1.0 -1
1.5855 -2.4605 -9.6039 0 255 255 -1.0 -1
0.3491 -1.8852 -10.5913 0 255 255 -1.0 -1
-0.7362 -1.1586 -8.1052 0 255 255 -1.0 -1
1.4538 -1.9659 -9.8431 0 255 255 -1.0 -1
0.5343 -2.2422 -10.2795 0 255 255 -1.0 -1
-2.7265 -1.4924 -7.2507 0 255 255 -1.0 -1
-1.7000 -4.7281 -5.8020 0 255 255 -1.0 -1
0.7815 -1.1414 -10.2463 0 255 255 -1.0 -1
0.3786 -2.4743 -10.3199 0 255 255 -1.0 -1
-0.7220 -1.3689 -5.7006 0 255 255 -1.0 -1
0.2592 -3.2289 -5.4540 0 255 255 -1.0 -1
-0.8036 -1.1644 -8.0195 0 255 255 -1.0 -1
-0.3321 -2.6707 -10.7578 0 255 255 -1.0 -1
0.5844 -1.3790 -4.2638 0 255 255 -1.0 -1
-0.9966 -1.3265 -3.2663 0 255 255 -1.0 -1
0.6376 -0.4948 0.9218 0 255 255 -1.0 -1
0.9999 -1.8921 -10.0292 0 255 255 -1.0 -1
-2.0453 -1.3608 -5.8571 0 255 255 -1.0 -1
-0.1597 -2.8302 -9.0639 0 255 255 -1.0 -1
0.8499 -2.4301 -10.1011 0 255 255 -1.0 -1
-0.1567 -1.4436 -5.5440 0 255 255 -1.0 -1
-0.0084 -2.7744 -5.7804 0 255 255 -1.0 -1
1.0953 -2.6175 -9.8925 0 255 255 -1.0 -1
1.7367 -2.8326 -9.4209 0 255 255 -1.0 -1
-2.0813 -4.5195 -4.9428 0 255 255 -1.0 -1
0.5850 -1.4767 -10.3048 0 255 255 -1.0 -1
-0.1843 -2.3700 -10.9404 0 255 255 -1.0 -1
-0.3395 -3.0736 -8.9262 0 255 255 -1.0 -1
-1.1988 -4.0328 -7.3161 0 255 255 -1.0 -1
-3.2279 -3.6183 -2.7983 0 255 255 -1.0 -1
-1.8980 -4.3782 -6.7461 0 255 255 -1.0 -1
-0.9731 -1.3956 -2.9340 0 255 255 -1.0 -1
-2.9944 -3.7185 -3.4503 0 255 255 -1.0 -1
-3.3362 -4.5516 -4.2368 0 255 255 -1.0 -1
-0.2355 -1.2795 -0.9194 0 255 255 -1.0 -1
0.7547 -4.6722 -3.1681 0 255 255 -1.0 -1
-1.3614 -4.5660 -2.1228 0 255 255 -1.0 -1
0.4777 -1.8215 -10.4321 0 255 255 -1.0 -1
-2.2872 -4.3895 -7.4521 0 255 255 -1.0 -1
1.4741 -1.4347 -6.8563 0 255 255 -1.0 -1
-3.3746 -3.6950 -3.5982 0 255 255 -1.0 -1
-0.0715 -1.3057 -10.7937 0 255 255 -1.0 -1
0.7789 -2.7536 -10.0871 0 255 255 -1.0 -1
-0.4536 -0.9506 -8.4345 0 255 255 -1.0 -1
-0.3102 -2.5458 -5.7324 0 255 255 -1.0 -1
-1.9267 -1.8815 -8.2345 0 255 255 -1.0 -1
0.0920 -4.0537 -5.5802 0 255 255 -1.0 -1
0.0895 -0.7771 -10.7333 0 255 255 -1.0 -1
0.1601 -1.4365 -10.6782 0 255 255 -1.0 -1
-1.0139 -0.5978 1.4458 0 255 255 -1.0 -1
-1.7074 -4.6119 -2.3588 0 255 255 -1.0 -1
0.9895 -0.2546 -10.0704 0 255 255 -1.0 -1
0.7250 -1.1206 -10.1033 0 255 255 -1.0 -1
-0.8537 -4.4759 -4.8975 0 255 255 -1.0 -1
-1.4818 -1.4665 -3.0779 0 255 255 -1.0 -1
-1.5903 -1.9249 -7.9450 0 255 255 -1.0 -1
1.6259 -2.8354 -9.4692 0 255 255 -1.0 -1
-1.3769 -1.4877 -7.2871 0 255 255 -1.0 -1
-2.7386 -1.3654 -7.0035 0 255 255 -1.0 -1
-0.1576 -3.4921 -3.1064 0 255 255 -1.0 -1
-1.1532 -4.1806 -6.9955 0 255 255 -1.0 -1
-0.0144 -1.5899 -9.2303 0 255 255 -1.0 -1
-0.2436 -1.3770 -1.8076 0 255 255 -1.0 -1
0.7849 -1.9184 -10.2290 0 255 255 -1.0 -1
-0.9759 -3.7459 -7.8205 0 255 255 -1.0 -1
-0.6893 -3.7627 -7.1549 0 255 255 -1.0 -1
0.2887 -1.9276 -10.4784 0 255 255 -1.0 -1
-0.3912 0.5644 -3.6930 0 255 255 -1.0 -1
-0.9880 -1.8959 -7.7338 0 255 255 -1.0 -1
-1.5142 -1.1834 -7.1257 0 255 255 -1.0 -1
0.8657 -1.9234 -10.1298 0 255 255 -1.0 -1
-0.8974 -1.3323 -5.5388 0 255 255 -1.0 -1
-2.1796 -4.3255 -1.8449 0 255 255 -1.0 -1
-1.3529 -1.8109 -7.7571 0 255 255 -1.0 -1
-2.1305 -1.2646 -5.3024 0 255 255 -1.0 -1
-1.6416 -1.1913 -2.1650 0 255 255 -1.0 -1
-1.0901 -1.3177 -2.0673 0 255 255 -1.0 -1
-0.4331 -1.8723 -8.7459 0 255 255 -1.0 -1
-0.7310 -0.4784 -4.0977 0 255 255 -1.0 -1
-0.6588 -1.1122 -8.2650 0 255 255 -1.0 -1
-0.5613 -2.5806 -8.7798 0 255 255 -1.0 -1
0.1771 -4.4437 -5.4983 0 255 255 -1.0 -1
0.9621 -1.4790 -9.9394 0 255 255 -1.0 -1
-0.5446 -0.8885 -7.1131 0 255 255 -1.0 -1
1.1853 -2.4522 -9.9244 0 255 255 -1.0 -1
-0.4290 -0.6387 0.5125 0 255 255 -1.0 -1
-0.2285 -2.6133 -8.9598 0 255 255 -1.0 -1
0.1691 -1.6842 -10.6330 0 255 255 -1.0 -1
-0.3989 -4.5650 -3.3489 0 255 255 -1.0 -1
-0.6651 -3.2752 -8.3585 0 255 255 -1.0 -1
0.6414 -2.1406 -10.3305 0 255 255 -1.0 -1
-3.3669 -4.5465 -4.3211 0 255 255 -1.0 -1
0.7932 -1.2603 -10.2506 0 255 255 -1.0 -1
-0.2455 -0.5930 1.6514 0 255 255 -1.0 -1
-0.0873 -1.3077 -8.5888 0 255 255 -1.0 -1
-1.5711 0.1277 -3.6286 0 255 255 -1.0 -1
-0.8976 -3.7666 -7.8378 0 255 255 -1.0 -1
0.0270 -3.3594 -5.6114 0 255 255 -1.0 -1
2.2697 -0.8627 -0.6002 0 255 255 -1.0 -1
-1.6537 -0.5852 -6.9602 0 255 255 -1.0 -1
-1.4876 -1.1838 -7.1805 0 255 255 -1.0 -1
-1.5140 -1.4190 -7.1438 0 255 255 -1.0 -1
0.8011 -3.1414 -10.1558 0 255 255 -1.0 -1
-0.9313 -1.3712 -8.3300 0 255 255 -1.0 -1
-1.7134 -4.4217 -6.8494 0 255 255 -1.0 -1
-1.7154 -1.5360 -8.4239 0 255 255 -1.0 -1
1.3147 -2.4254 -9.8836 0 255 255 -1.0 -1
0.9214 -2.8155 -10.0763 0 255 255 -1.0 -1
0.4007 -2.4139 -10.2904 0 255 255 -1.0 -1
-1.2366 -1.2486 -6.6946 0 255 255 -1.0 -1
-0.8785 -1.1436 -6.5913 0 255 255 -1.0 -1
-1.7117 -1.3391 -7.0033 0 255 255 -1.0 -1
-1.1970 -1.3185 -4.7685 0 255 255 -1.0 -1
-0.7044 -1.0547 -8.0928 0 255 255 -1.0 -1
-0.3139 -0.5921 1.0661 0 255 255 -1.0 -1
1.6701 -0.8088 -9.4906 0 255 255 -1.0 -1
-1.8366 -1.3570 -5.7199 0 255 255 -1.0 -1
-0.2919 -0.7442 -8.6661 0 255 255 -1.0 -1
-1.0901 -1.3355 -2.2107 0 255 255 -1.0 -1
-0.8544 -0.2948 1.5410 0 255 255 -1.0 -1
-0.4441 -1.4121 -2.7839 0 255 255 -1.0 -1
0.0869 -2.1592 -9.0791 0 255 255 -1.0 -1
-1.2848 -0.9749 -7.4084 0 255 255 -1.0 -1
-3.4568 -1.3196 -6.5277 0 255 255 -1.0 -1
0.1509 -3.2459 -6.0031 0 255 255 -1.0 -1
1.2596 -2.5923 -9.8575 0 255 255 -1.0 -1
0.5902 -2.0964 -10.3017 0 255 255 -1.0 -1
-1.6348 -0.2433 -2.1758 0 255 255 -1.0 -1
-1.1917 -1.2665 0.7589 0 255 255 -1.0 -1
-1.9887 -1.6834 -7.9744 0 255 255 -1.0 -1
-0.5413 0.4731 -2.4087 0 255 255 -1.0 -1
-2.8588 -1.4721 -6.6108 0 255 255 -1.0 -1
1.7435 -1.1759 -9.4672 0 255 255 -1.0 -1
-0.8306 -0.3489 -7.9248 0 255 255 -1.0 -1
0.0697 -1.1977 -2.4045 0 255 255 -1.0 -1
0.5727 -2.0024 -10.3482 0 255 255 -1.0 -1
0.0368 -3.3645 -9.2105 0 255 255 -1.0 -1
0.6060 -0.3614 -9.5833 0 255 255 -1.0 -1
-0.5738 -4.6609 -5.5258 0 255 255 -1.0 -1
-0.8483 -2.3162 -8.2309 0 255 255 -1.0 -1
1.2200 -2.7216 -9.8567 0 255 255 -1.0 -1
-0.1088 -4.5667 -5.3594 0 255 255 -1.0 -1
0.9770 -1.9904 -10.0558 0 255 255 -1.0 -1
-1.1802 -1.3546 -4.7814 0 255 255 -1.0 -1
0.0045 -0.7617 -0.0507 0 255 255 -1.0 -1
-0.2425 -3.5761 -5.9315 0 255 255 -1.0 -1
-3.0975 -3.6209 -2.9626 0 255 255 -1.0 -1
0.6081 -3.2411 -10.0189 0 255 255 -1.0 -1
-0.7935 -0.2451 1.7046 0 255 255 -1.0 -1
-1.6329 -1.3760 -6.0109 0 255 255 -1.0 -1
-0.5325 -0.9286 0.6063 0 255 255 -1.0 -1
-1.2459 -0.2592 1.5724 0 255 255 -1.0 -1
-1.6335 -1.1990 -6.9181 0 255 255 -1.0 -1
1.6474 -1.4639 -9.5876 0 255 255 -1.0 -1
-2.0306 -1.3422 -5.6185 0 255 255 -1.0 -1
-0.6711 -3.7470 -7.1072 0 255 255 -1.0 -1
-0.0791 -1.9940 -10.8996 0 255 255 -1.0 -1
0.8095 -2.5532 -10.0624 0 255 255 -1.0 -1
0.5083 -2.3280 -10.3385 0 255 255 -1.0 -1
0.3555 -1.4761 -5.3982 0 255 255 -1.0 -1
-2.2496 -1.4963 -5.5254 0 255 255 -1.0 -1
-1.1306 -0.6401 1.4441 0 255 255 -1.0 -1
-0.3246 -0.3730 2.1255 0 255 255 -1.0 -1
0.4184 -2.7038 -10.2392 0 255 255 -1.0 -1
-0.0547 -4.5534 -4.5356 0 255 255 -1.0 -1
-0.7656 -0.6481 0.9753 0 255 255 -1.0 -1
-3.8400 -4.5001 -4.1502 0 255 255 -1.0 -1
-0.0333 -0.8994 -5.4265 0 255 255 -1.0 -1
-1.1915 -1.0065 -1.9510 0 255 255 -1.0 -1
1.2549 -2.4767 -9.9068 0 255 255 -1.0 -1
-0.7382 -2.0374 -8.1062 0 255 255 -1.0 -1
-0.2063 -1.3513 -10.9086 0 255 255 -1.0 -1
-0.1171 -3.6340 -3.1079 0 255 255 -1.0 -1
-1.5775 -4.2556 -2.4256 0 255 255 -1.0 -1
0.1984 -2.5454 -10.4352 0 255 255 -1.0 -1
-1.1070 -0.6042 1.0768 0 255 255 -1.0 -1
-2.3393 -1.4692 -7.8182 0 255 255 -1.0 -1
1.2501 -1.3138 -9.5999 0 255 255 -1.0 -1
-0.6462 -0.5265 -8.3037 0 255 255 -1.0 -1
-0.2156 -1.3148 -2.9334 0 255 255 -1.0 -1
-1.0841 -1.6162 -7.6942 0 255 255 -1.0 -1
-0.3173 -3.6971 -7.2846 0 255 255 -1.0 -1
-1.4040 -0.1806 -1.9088 0 255 255 -1.0 -1
0.1000 -3.0512 -10.4723 0 255 255 -1.0 -1
-1.0524 -1.3902 -5.5302 0 255 255 -1.0 -1
-2.4816 -4.4515 -6.0248 0 255 255 -1.0 -1
0.7587 -1.7690 -10.2176 0 255 255 -1.0 -1
-1.7059 -4.4541 -5.3200 0 255 255 -1.0 -1
-0.1738 -3.4729 -3.0694 0 255 255 -1.0 -1
0.9078 -1.6374 -10.1261 0 255 255 -1.0 -1
1.3303 -1.7010 -9.6376 0 255 255 -1.0 -1
0.4522 -2.9225 -10.5454 0 255 255 -1.0 -1
-3.9351 -4.5515 -4.1910 0 255 255 -1.0 -1
0.7709 -1.7600 -10.2097 0 255 255 -1.0 -1
1.5310 -1.4184 -9.5073 0 255 255 -1.0 -1
-0.4730 -3.8262 -7.1074 0 255 255 -1.0 -1
0.0691 -2.6481 -10.5481 0 255 255 -1.0 -1
0.0971 -2.5720 -4.6974 0 255 255 -1.0 -1
0.8987 -0.3126 -10.1639 0 255 255 -1.0 -1
-0.5287 -0.9481 -8.4068 0 255 255 -1.0 -1
-0.4509 -1.2541 -0.3521 0 255 255 -1.0 -1
-0.3273 -1.4237 -2.6787 0 255 255 -1.0 -1
-0.5454 -1.8013 -8.6595 0 255 255 -1.0 -1
1.2678 -1.8764 -9.8244 0 255 255 -1.0 -1
0.2628 -4.5657 -4.7610 0 255 255 -1.0 -1
-0.6646 -4.3954 -3.6336 0 255 255 -1.0 -1
-0.7227 -0.6565 0.9142 0 255 255 -1.0 -1
0.9218 -1.6833 -10.0450 0 255 255 -1.0 -1
2.5584 -0.8705 -0.1358 0 255 255 -1.0 -1
0.7741 -1.7146 -10.1976 0 255 255 -1.0 -1
0.2004 -2.4559 -10.4756 0 255 255 -1.0 -1
-1.3225 -0.7735 -8.6987 0 255 255 -1.0 -1
0.8701 -1.6520 -10.0903 0 255 255 -1.0 -1
-0.1224 -1.3826 -10.5384 0 255 255 -1.0 -1
-1.1830 -4.1104 -7.0227 0 255 255 -1.0 -1
-3.1570 -1.4586 -6.1241 0 255 255 -1.0 -1
-4.3000 -1.4203 -7.1662 0 255 255 -1.0 -1
-3.9176 -3.5583 -2.2737 0 255 255 -1.0 -1
-0.1998 -0.7931 0.2837 0 255 255 -1.0 -1
0.3693 -3.1141 -5.3251 0 255 255 -1.0 -1
-2.6651 -1.6687 -5.8667 0 255 255 -1.0 -1
-1.6958 -2.1315 -6.5541 0 255 255 -1.0 -1
-0.3382 -0.6158 1.1400 0 255 255 -1.0 -1
-4.4501 -3.8283 -3.7786 0 255 255 -1.0 -1
0.3530 -0.2513 -9.8434 0 255 255 -1.0 -1
0.2590 -2.4667 -10.6338 0 255 255 -1.0 -1
1.4300 -1.8466 -9.5912 0 255 255 -1.0 -1
-0.0391 -2.8753 -10.8005 0 255 255 -1.0 -1
-1.6851 -0.6783 -6.9496 0 255 255 -1.0 -1
0.6664 -1.6272 -10.3553 0 255 255 -1.0 -1
-0.6610 -3.5162 -7.9181 0 255 255 -1.0 -1
-2.6307 -1.3801 -6.6550 0 255 255 -1.0 -1
0.5120 -3.7888 -5.3391 0 255 255 -1.0 -1
-1.9021 -4.2549 -5.7663 0 255 255 -1.0 -1
-0.6704 -2.3897 -8.4475 0 255 255 -1.0 -1
0.2097 -1.8267 -10.6684 0 255 255 -1.0 -1
0.7516 -1.4003 -10.2200 0 255 255 -1.0 -1
-2.3510 -1.4895 -5.7803 0 255 255 -1.0 -1
0.9053 -1.1694 -10.0964 0 255 255 -1.0 -1
-1.2530 -4.4640 -5.9962 0 255 255 -1.0 -1
-0.3509 -0.6301 1.1697 0 255 255 -1.0 -1
1.1986 -2.3564 -9.6545 0 255 255 -1.0 -1
0.9128 -1.7375 -10.0988 0 255 255 -1.0 -1
-0.5317 -2.2524 -8.5890 0 255 255 -1.0 -1
-0.7187 -0.3928 -6.3731 0 255 255 -1.0 -1
1.3293 -1.9797 -9.8154 0 255 255 -1.0 -1
0.5402 -1.8741 -10.3734 0 255 255 -1.0 -1
-0.9035 -3.9825 -6.2212 0 255 255 -1.0 -1
1.0578 -1.6329 -10.0453 0 255 255 -1.0 -1
0.6007 -1.4073 -4.6908 0 255 255 -1.0 -1
1.1194 -1.7761 -10.0002 0 255 255 -1.0 -1
-2.8520 -1.3424 -6.0404 0 255 255 -1.0 -1
-0.2350 -2.7805 -9.0604 0 255 255 -1.0 -1
-3.5440 -4.1699 -3.9516 0 255 255 -1.0 -1
-1.2597 -0.6024 1.0172 0 255 255 -1.0 -1
-0.3858 -0.6211 1.3614 0 255 255 -1.0 -1
-0.1177 -3.8411 -5.9055 0 255 255 -1.0 -1
1.5811 -1.4939 -9.6632 0 255 255 -1.0 -1
-0.1595 -3.5123 -3.1277 0 255 255 -1.0 -1
-2.0524 -1.6451 -7.4052 0 255 255 -1.0 -1
-0.1384 -2.8365 -9.2850 0 255 255 -1.0 -1
-1.1213 -1.3935 -5.9389 0 255 255 -1.0 -1
0.0640 -0.5064 1.2059 0 255 255 -1.0 -1
-0.6733 -2.5002 -8.3680 0 255 255 -1.0 -1
0.8150 -2.5497 -10.0766 0 255 255 -1.0 -1
0.6758 -0.9795 -10.2490 0 255 255 -1.0 -1
0.4712 -0.7444 -9.0214 0 255 255 -1.0 -1
0.4311 -4.4087 -5.3233 0 255 255 -1.0 -1
1.7518 -0.8843 0.1583 0 255 255 -1.0 -1
-1.0319 -3.9687 -7.1969 0 255 255 -1.0 -1
-1.0103 -2.0971 -7.9407 0 255 255 -1.0 -1
-3.1316 -3.7175 -3.3881 0 255 255 -1.0 -1
-0.5163 -4.5402 -5.2010 0 255 255 -1.0 -1
1.5513 -0.2883 -9.7725 0 255 255 -1.0 -1
-1.6631 -1.3421 -5.1180 0 255 255 -1.0 -1
-0.0850 -4.5327 -4.5586 0 255 255 -1.0 -1
-1.3080 -3.8493 -7.4590 0 255 255 -1.0 -1
-1.7003 -4.4816 -5.6074 0 255 255 -1.0 -1
-0.1943 -2.3668 -9.1442 0 255 255 -1.0 -1
-0.3431 -4.3375 -5.8115 0 255 255 -1.0 -1
1.4092 -1.2626 -9.6349 0 255 255 -1.0 -1
-0.0615 -4.2121 -5.7231 0 255 255 -1.0 -1
-2.3327 -4.6072 -1.8665 0 255 255 -1.0 -1
0.0683 -1.7012 -10.7834 0 255 255 -1.0 -1
1.2059 -2.5695 -9.7936 0 255 255 -1.0 -1
-1.9776 -1.5062 -6.0865 0 255 255 -1.0 -1
1.3410 -2.5278 -9.4739 0 255 255 -1.0 -1
0.0721 -3.7098 -5.5741 0 255 255 -1.0 -1
-0.0241 -1.3557 -2.3894 0 255 255 -1.0 -1
-2.8204 -1.3816 -7.1736 0 255 255 -1.0 -1
0.4058 -1.9519 -10.5675 0 255 255 -1.0 -1
0.0988 -1.3539 -1.4170 0 255 255 -1.0 -1
-0.8106 -0.6144 1.5372 0 255 255 -1.0 -1
1.6563 -1.9957 -9.5234 0 255 255 -1.0 -1
1.2510 -1.8166 -9.8471 0 255 255 -1.0 -1
-0.9589 -4.3282 -5.8072 0 255 255 -1.0 -1
0.3971 -0.5437 0.7839 0 255 255 -1.0 -1
0.4614 -1.7002 -10.4070 0 255 255 -1.0 -1
1.4929 -1.3033 -9.6575 0 255 255 -1.0 -1
-0.8795 -0.5235 1.6217 0 255 255 -1.0 -1
1.6253 -1.3222 -9.4567 0 255 255 -1.0 -1
0.1375 -4.0270 -5.5539 0 255 255 -1.0 -1
1.2520 -1.9378 -9.9085 0 255 255 -1.0 -1
0.3452 -1.8480 -10.5750 0 255 255 -1.0 -1
0.8286 -2.4330 -10.1663 0 255 255 -1.0 -1
-0.9992 -2.1532 -8.0006 0 255 255 -1.0 -1
-0.3119 -0.5753 1.5186 0 255 255 -1.0 -1
-0.5615 -0.6178 1.1953 0 255 255 -1.0 -1
-1.3933 -1.8470 -7.4928 0 255 255 -1.0 -1
-2.8137 -3.6446 -3.3964 0 255 255 -1.0 -1
-0.2939 -2.7865 -8.9820 0 255 255 -1.0 -1
1.2028 -1.6900 -9.8771 0 255 255 -1.0 -1
0.6273 -1.0774 -10.2338 0 255 255 -1.0 -1
-0.4096 -1.3397 -5.4881 0 255 255 -1.0 -1
0.7539 -2.7481 -10.2590 0 255 255 -1.0 -1
-1.9866 -1.6358 -7.9578 0 255 255 -1.0 -1
0.8177 -1.6540 -10.1125 0 255 255 -1.0 -1
-2.7428 -1.5786 -6.6957 0 255 255 -1.0 -1
-0.7861 -3.4563 -8.2208 0 255 255 -1.0 -1
0.4764 -1.1651 -10.3584 0 255 255 -1.0 -1
0.6196 -4.3688 -5.2368 0 255 255 -1.0 -1
1.4485 -1.3704 -9.6033 0 255 255 -1.0 -1
-0.8608 -1.4005 -8.7950 0 255 255 -1.0 -1
-0.0885 -0.7458 0.0498 0 255 255 -1.0 -1
0.2208 -0.5933 0.3618 0 255 255 -1.0 -1
-0.0963 -2.9314 -8.6279 0 255 255 -1.0 -1
-1.6770 -2.4925 -6.9769 0 255 255 -1.0 -1
-1.5830 -1.9278 -8.0665 0 255 255 -1.0 -1
-2.0451 -1.4212 -5.5644 0 255 255 -1.0 -1
1.2412 -3.0331 -9.1899 0 255 255 -1.0 -1
-2.9763 -1.3668 -6.1666 0 255 255 -1.0 -1
-1.1777 -1.3387 -5.5417 0 255 255 -1.0 -1
-1.3314 -1.2582 -1.9237 0 255 255 -1.0 -1
0.5332 -1.3598 -10.3736 0 255 255 -1.0 -1
0.4194 -3.3800 -5.3234 0 255 255 -1.0 -1
-0.2875 -1.3058 -4.0197 0 255 255 -1.0 -1
-2.0346 -1.9405 -8.4066 0 255 255 -1.0 -1
-2.5451 -1.3570 -5.9828 0 255 255 -1.0 -1
-2.6109 -1.3400 -6.4264 0 255 255 -1.0 -1
-1.9346 -1.6310 -8.1675 0 255 255 -1.0 -1
-1.3958 0.1795 -1.6601 0 255 255 -1.0 -1
-3.5246 -1.5174 -6.0734 0 255 255 -1.0 -1
1.6839 -2.3530 -9.6742 0 255 255 -1.0 -1
-0.9030 -4.5086 -5.4615 0 255 255 -1.0 -1
-0.5452 -1.3740 -3.5006 0 255 255 -1.0 -1
-1.9442 -4.4964 -6.6259 0 255 255 -1.0 -1
-0.5778 -1.3869 -4.6558 0 255 255 -1.0 -1
0.0722 -1.3575 -5.1157 0 255 255 -1.0 -1
-0.0748 -0.9934 -9.2244 0 255 255 -1.0 -1
-0.3611 -1.3142 -4.1307 0 255 255 -1.0 -1
-0.1574 -4.5759 -5.5095 0 255 255 -1.0 -1
-1.0589 -0.6722 1.2446 0 255 255 -1.0 -1
0.7253 -1.2955 -0.3855 0 255 255 -1.0 -1
0.0957 -2.1233 -10.5906 0 255 255 -1.0 -1
-0.7594 -1.3307 -2.9429 0 255 255 -1.0 -1
-1.1054 -4.1635 -6.6882 0 255 255 -1.0 -1
1.1616 -2.6753 -9.9333 0 255 255 -1.0 -1
0.0605 -2.5705 -10.8948 0 255 255 -1.0 -1
0.2440 -1.4339 -4.7501 0 255 255 -1.0 -1
-2.0876 -1.7477 -8.1051 0 255 255 -1.0 -1
-1.4009 -2.2938 -7.2245 0 255 255 -1.0 -1
-2.9714 -3.6259 -3.1892 0 255 255 -1.0 -1
-1.5590 -1.3263 -6.9947 0 255 255 -1.0 -1
0.2795 -4.4415 -3.4127 0 255 255 -1.0 -1
0.1146 -0.6750 -10.7641 0 255 255 -1.0 -1
-0.5301 -0.6239 1.4194 0 255 255 -1.0 -1
0.2356 -1.2393 -3.4651 0 255 255 -1.0 -1
-4.5395 -4.4931 -3.8255 0 255 255 -1.0 -1
-0.6256 -3.9354 -7.1125 0 255 255 -1.0 -1
-1.0090 -1.4230 -2.9335 0 255 255 -1.0 -1
0.7943 -1.1661 -10.0162 0 255 255 -1.0 -1
0.4654 -2.4802 -10.3929 0 255 255 -1.0 -1
0.0384 -0.4548 -10.7348 0 255 255 -1.0 -1
-1.6477 -1.3969 -5.1140 0 255 255 -1.0 -1
-1.5267 -4.7090 -5.7646 0 255 255 -1.0 -1
0.0411 -4.2100 -5.6662 0 255 255 -1.0 -1
1.2414 -1.9339 -9.8875 0 255 255 -1.0 -1
-1.3285 -1.3772 -6.3212 0 255 255 -1.0 -1
-1.1850 -3.0912 -5.8053 0 255 255 -1.0 -1
-0.1039 -1.3240 -0.2910 0 255 255 -1.0 -1
-0.1032 -1.3085 -0.1581 0 255 255 -1.0 -1
-1.3965 -0.6150 1.0970 0 255 255 -1.0 -1
-0.3766 -1.4841 -8.9000 0 255 255 -1.0 -1
-1.2517 -1.5606 -7.3650 0 255 255 -1.0 -1
-2.6976 -1.3744 -6.5548 0 255 255 -1.0 -1
5.0287 -0.7615 2.8377 0 255 255 -1.0 -1
0.6225 -2.6736 -10.2752 0 255 255 -1.0 -1
-0.0203 -3.8545 -5.6502 0 255 255 -1.0 -1
0.7996 -2.0076 -10.1832 0 255 255 -1.0 -1
-2.4113 -1.5008 -6.7928 0 255 255 -1.0 -1
-1.4428 -1.2838 -6.9495 0 255 255 -1.0 -1
-0.8744 -4.6310 -4.4826 0 255 255 -1.0 -1
-0.6214 -1.3476 -5.4697 0 255 255 -1.0 -1
0.8161 -1.0885 -9.9946 0 255 255 -1.0 -1
1.7433 -2.8429 -9.4259 0 255 255 -1.0 -1
0.6476 -0.7828 -10.3013 0 255 255 -1.0 -1
-3.0497 -1.6706 -5.5426 0 255 255 -1.0 -1
0.5754 -1.6585 -2.4099 0 255 255 -1.0 -1
-1.6008 -1.3924 -6.8985 0 255 255 -1.0 -1
1.7004 -1.4099 -9.5247 0 255 255 -1.0 -1
-0.3209 -1.3691 -3.5684 0 255 255 -1.0 -1
0.5818 -1.9251 -10.4153 0 255 255 -1.0 -1
0.7690 -2.1591 -10.2129 0 255 255 -1.0 -1
0.4655 -3.0732 -5.3313 0 255 255 -1.0 -1
-1.7127 -1.4054 -6.6144 0 255 255 -1.0 -1
1.1457 -2.3523 -9.8851 0 255 255 -1.0 -1
1.0896 -1.7686 -10.0640 0 255 255 -1.0 -1
-1.0006 -1.2917 -7.7806 0 255 255 -1.0 -1
-1.8713 -1.4074 -5.7959 0 255 255 -1.0 -1
1.1884 -2.2596 -9.9416 0 255 255 -1.0 -1
-0.5227 -1.3491 -4.8483 0 255 255 -1.0 -1
-0.1584 -1.3073 -3.2705 0 255 255 -1.0 -1
-0.5362 -1.3465 -2.1747 0 255 255 -1.0 -1
-0.8475 -0.5737 1.3280 0 255 255 -1.0 -1
-0.0936 -3.2556 -5.2108 0 255 255 -1.0 -1
1.3341 -2.4455 -9.6268 0 255 255 -1.0 -1
0.9186 -1.1480 -1.1251 0 255 255 -1.0 -1
-0.2429 -1.9964 -9.0403 0 255 255 -1.0 -1
-1.1431 -0.0835 -7.6593 0 255 255 -1.0 -1
0.1763 -2.5678 -10.7432 0 255 255 -1.0 -1
0.1416 -2.5000 -10.6162 0 255 255 -1.0 -1
1.7589 -1.4164 -9.5205 0 255 255 -1.0 -1
-2.3319 -1.3626 -6.2978 0 255 255 -1.0 -1
0.0653 -3.5951 -5.6426 0 255 255 -1.0 -1
-0.6186 -1.2060 -3.6577 0 255 255 -1.0 -1
-0.1261 -3.5305 -3.1098 0 255 255 -1.0 -1
-2.1235 -1.3514 -6.8609 0 255 255 -1.0 -1
0.5849 -4.5831 -4.6141 0 255 255 -1.0 -1
1.2464 -0.4787 -6.0657 0 255 255 -1.0 -1
-0.0223 -1.5443 -9.0480 0 255 255 -1.0 -1
1.7184 -2.4967 -9.5046 0 255 255 -1.0 -1
-2.0511 -1.4846 -7.2671 0 255 255 -1.0 -1
-1.5831 -1.8635 -9.0182 0 255 255 -1.0 -1
0.2334 -1.4856 -2.6230 0 255 255 -1.0 -1
1.3210 -2.4837 -9.7825 0 255 255 -1.0 -1
-0.6212 -3.2709 -8.4313 0 255 255 -1.0 -1
-0.4775 -3.1636 -6.0656 0 255 255 -1.0 -1
-0.1720 -1.3749 -0.2029 0 255 255 -1.0 -1
-0.2216 -2.8130 -9.0727 0 255 255 -1.0 -1
-0.8113 -2.6448 -5.7586 0 255 255 -1.0 -1
-2.9652 -3.6900 -3.4919 0 255 255 -1.0 -1
-0.4930 -1.5013 -3.1395 0 255 255 -1.0 -1
1.0174 -2.3017 -10.0430 0 255 255 -1.0 -1
-2.1599 -1.3302 -5.6476 0 255 255 -1.0 -1
-1.3654 -0.6395 1.0907 0 255 255 -1.0 -1
0.0835 -3.7688 -5.5987 0 255 255 -1.0 -1
1.3803 -2.4933 -9.7889 0 255 255 -1.0 -1
-0.8842 -3.5969 -6.2901 0 255 255 -1.0 -1
0.9823 -0.8774 -10.0941 0 255 255 -1.0 -1
1.3165 -1.8814 -9.7901 0 255 255 -1.0 -1
0.3956 -2.0141 -10.5100 0 255 255 -1.0 -1
-0.1630 -0.5611 1.8548 0 255 255 -1.0 -1
0.1643 -1.3972 -4.6677 0 255 255 -1.0 -1
0.2349 -4.5740 -4.2543 0 255 255 -1.0 -1
0.2320 -1.1265 -10.6778 0 255 255 -1.0 -1
0.4598 -4.3811 -5.3061 0 255 255 -1.0 -1
-2.2958 -1.3802 -6.8682 0 255 255 -1.0 -1
-0.1863 -3.4066 -3.1063 0 255 255 -1.0 -1
1.2552 -1.7314 -9.5572 0 255 255 -1.0 -1
0.4243 -1.8305 -10.4653 0 255 255 -1.0 -1
0.3916 -1.0575 -10.4718 0 255 255 -1.0 -1
-1.7295 -1.6830 -7.6546 0 255 255 -1.0 -1
-4.1262 -4.4342 -4.2108 0 255 255 -1.0 -1
-0.2043 -1.4079 -0.4220 0 255 255 -1.0 -1
-0.4979 -4.5424 -5.6042 0 255 255 -1.0 -1
-1.8282 -4.3733 -6.6585 0 255 255 -1.0 -1
-0.9012 -1.9409 -7.8336 0 255 255 -1.0 -1
-0.1626 -2.8831 -9.1534 0 255 255 -1.0 -1
0.3385 -1.1941 -10.8468 0 255 255 -1.0 -1
1.1131 -4.4087 -4.3658 0 255 255 -1.0 -1
-0.4925 -1.7960 -8.8703 0 255 255 -1.0 -1
-0.9693 -0.3255 1.6258 0 255 255 -1.0 -1
-0.3023 -0.6000 1.5666 0 255 255 -1.0 -1
0.1468 -1.1436 -10.6976 0 255 255 -1.0 -1
